# .PCD v0.7 - Point Cloud Data file format
VERSION 0.7
FIELDS x y z
SIZE 4 4 4
TYPE F F F
COUNT 1 1 1
WIDTH 2136
HEIGHT 1
VIEWPOINT 0 0 0 1 0 0 0
POINTS 2136
DATA ascii
671.33936 50 40.149162
615.13354 0 44.435204
343.14639 29.439756 50
256.65512 36.308609 0
478.48395 0 29.989216
490.43658 32.82843 0
541.06616 29.306692 0
648.05042 39.859066 50
975.39514 0 23.172096
328.97202 0 25.504553
812.15063 50 18.981182
474.79172 50 9.4379635
322.34891 45.454552 50
36.705688 18.223818 50
969.70001 50 21.428001
556.5127 0 48.001598
130.96304 0 47.3978
655.46051 0 8.2086811
216.16649 44.160496 50
33.730705 6.9218926 50
122.87601 3.4457309 50
203.48711 50 38.268234
870.5437 50 2.3709745
644.84711 35.459549 0
255.35066 0 48.52877
857.74426 1.5868438 50
333.51877 50 44.330959
922.79132 0 17.900917
381.85269 0 10.287369
352.11148 43.889618 0
406.27066 50 47.809219
590.56104 50 9.941411
1000 0.3998518 40.46814
554.39813 50 12.91942
936.84406 37.692875 50
118.27052 37.107319 50
122.14027 0 22.200424
772.31226 0 14.196331
992.2666 0 3.8566034
465.25089 23.951078 50
540.9328 25.189487 50
822.49341 0 39.242947
398.87259 23.835415 0
358.8916 19.006626 50
131.92113 0 10.382839
661.45276 50 18.014153
581.25696 50 22.303947
8.1330776 50 22.638121
309.84079 0 13.986995
38.11552 50 1.8516064
928.30054 50 26.641758
6.7169313 33.816147 0
651.66632 50 8.8701363
859.27423 46.360001 0
842.2489 40.405182 0
536.76343 50 1.1914104
2.033138 0 12.961453
908.98364 35.278568 50
442.8999 0 35.86631
563.0849 50 48.542099
548.45563 50 20.735697
329.95288 11.92458 0
166.80283 22.755484 0
889.61633 0 47.261589
176.37148 33.616455 50
983.63251 27.418337 0
504.14462 8.4741564 0
483.71344 0 38.812679
701.94641 50 25.748491
760.32184 27.947828 50
702.89056 0 47.88623
197.86092 0 20.829874
948.01184 50 30.284151
680.2207 4.0612698 0
208.00967 50 31.160694
407.36301 50 13.7644
187.18692 37.3144 50
339.43729 50 38.654789
628.35205 19.032377 50
248.62621 50 37.210388
364.88666 50 3.8533151
674.13354 24.670216 0
15.660654 39.810001 0
483.53741 0 28.583769
624.23669 50 32.367752
1000 8.8376884 13.633257
56.346706 0 9.3953228
946.30212 50 40.71175
527.68097 11.655128 50
124.18463 32.633656 0
662.96729 50 39.931084
503.72134 34.818253 50
361.18317 50 11.342925
361.6958 0 43.350578
145.07567 8.1095858 49.999996
114.50985 0 49.358837
591.15497 0 14.889343
998.20343 0 48.165401
953.9104 50 43.457016
247.30878 0 44.624527
734.52808 50 12.196055
935.91345 11.623997 50
98.300819 0 34.39164
401.96207 0 23.736698
693.38641 50 19.23031
858.7226 44.202805 50
873.41858 5.5725245 0
288.82834 0 41.43388
327.84647 50 8.674902
226.97423 0 30.189526
575.15656 14.928487 0
817.13776 38.379269 0
715.59344 0 5.4102783
773.23877 0 30.675467
341.38919 26.045736 0
871.17688 50 16.375898
606.42792 50 3.2700806
105.10847 50 46.029079
359.53702 16.860415 50
264.556 0 2.8747942
229.84975 50 25.913923
611.91614 6.0837774 0
627.77875 50 31.724396
338.88638 0 43.864075
911.24457 50 12.226769
127.4493 49.999996 33.105747
482.99365 50 34.223545
202.09708 0 34.588516
0 6.4946451 26.858585
625.24731 22.558722 0
1000 15.855488 30.481853
286.47867 15.355283 0
214.77126 40.726379 0
212.85249 0 30.644775
607.86426 50 41.668224
294.87186 0 32.546352
208.98126 50 35.700779
113.03585 36.636585 50
400.47687 50 32.416061
758.53796 34.83839 0
791.59814 40.093807 50
97.397003 0 3.8391786
436.39975 9.6661959 0
0 46.224327 33.758373
968.75806 50 7.5114441
691.7998 3.8161244 50
36.850529 50 27.268108
524.96185 29.351057 0
916.76068 0 4.2523541
267.67383 50 18.803757
844.00586 50 11.715891
290.02789 50 39.49432
750.47504 41.095531 50
90.943192 50 2.5322318
111.39936 50 39.507519
774.75482 50 10.325113
922.82916 46.421963 50
626.82434 3.9300156 50
62.364044 50 38.601379
652.62408 40.898369 0
840.3103 0 32.002621
827.55701 37.368057 0
103.77174 50 1.9039243
590.8645 44.212296 50
606.3186 0 35.397392
575.51306 50 26.62804
428.98987 50 35.87841
150.06409 0 14.887375
395.98685 44.762337 0
58.230522 48.610825 0
709.34729 0 14.286381
702.54657 44.836876 50
492.38226 0 37.562
12.578357 50 19.423767
527.50623 10.474425 0
429.75092 38.906857 0
164.35002 50 38.527988
433.35281 24.033756 50
664.72534 15.302473 0
283.89777 23.27714 0
995.92303 0 23.482977
952.9151 40.308037 0
507.46045 20.929258 0
362.53912 20.704967 50
457.98169 0 12.877602
778.11066 0 46.247425
420.16525 7.8161182 0
484.98251 0 31.804169
91.303001 0 17.778801
78.377319 14.966597 50
326.88416 47.819275 0
723.98798 36.597 50
335.02872 18.300354 0
974.78577 0 17.637228
629.54156 14.829647 0
234.31235 0.82593817 50
290.6413 12.770694 50
600.93451 50 49.123402
459.93011 13.9656 50
142.27042 47.567242 0
75.28614 0 17.765924
394.83411 50 3.8458765
165.15224 0 13.466652
979.77307 32.128529 50
828.79089 0 26.121675
440.40137 48.543705 50
325.74564 0 6.7080045
918.96924 0 22.752569
3.2728558 42.557514 50
920.06415 18.337259 50
498.10977 50 7.6050372
465.99896 43.769184 0
817.19916 50 20.499746
432.5802 0 8.6127625
464.49341 0 41.82151
700.05383 35.610729 0
354.30109 20.804865 0
0 5.2262063 1.6366984
699.25635 50 10.426196
701.62769 0 8.2849722
628.1554 35.108475 50
419.07434 19.582626 0
73.350433 30.927259 0
826.38159 0 32.61647
995.91479 50 35.841156
639.84094 31.965338 50
504.12204 42.475731 0
833.82538 32.345367 50
390.99692 45.269547 50
207.44954 46.553257 50
478.40259 32.849133 0
710.37762 14.472445 0
266.0365 30.581224 50
706.64825 50 44.338196
703.81848 38.220737 0
184.53523 50 26.888662
202.67085 0 28.871918
433.9866 8.1019344 50
978.31299 50 11.339336
879.04834 0 47.760998
502.66302 1.5522629 0
18.538622 0 28.654415
727.26379 0 29.370985
963.25574 0 26.215809
85.435616 0 21.708702
328.8501 50 0.51997602
867.91412 3.4033327 0
618.5545 50 37.782021
564.83698 50 18.211428
987.20837 0 43.38942
97.611984 50 42.40538
703.44275 49.091476 50
849.4939 38.713051 50
40.67886 50 29.015038
253.14081 3.6065786 50
438.25037 5.0074697 50
709.75806 50 13.541898
166.65181 9.9705067 50
173.92732 34.713131 0
783.76526 0 20.893923
75.233437 9.2924509 0
983.83582 42.893806 50
782.61658 37.454472 0
495.9895 50 47.699585
877.98376 50 42.611515
643.01245 50 23.033777
566.47742 45.40242 0
672.17877 47.955482 50
250.56549 0 11.716012
829.32446 22.042213 0
331.18808 16.689795 50
834.50665 0 38.138256
586.26038 0 4.2824821
677.46381 1.9332796 0
307.76056 0 36.112221
649.61041 26.968918 50
402.12906 18.74358 50
29.331364 45.345165 0
14.818641 50 17.012417
797.18268 50 20.94578
543.20081 0 23.504694
559.57428 33.673328 0
107.9846 27.064701 50
503.55695 50 45.933064
81.645493 44.434452 0
885.32703 50 35.139523
93.868355 50 15.755084
289.4577 44.812195 50
39.322132 0 3.8472102
798.91418 0 28.263811
949.81512 38.613201 0
887.63403 0 9.2536945
721.34302 0 32.469391
907.89233 0 22.061745
982.81433 47.215778 0
723.27344 9.3937845 0
662.32904 33.139107 0
585.52759 50 28.265722
337.76456 13.872996 0
944.13672 34.62595 0
971.45312 50 32.933403
172.46602 5.4698105 50
53.454014 27.385572 50
637.87231 44.031601 50
71.546921 39.231083 50
488.01193 2.8774018 50
763.27124 39.598244 0
276.14084 0 35.663654
269.56259 0 6.0428133
894.09143 4.7093925 0
854.65503 0 32.944366
650.80579 0 21.262442
1000 49.588924 31.57177
324.21423 50 35.835396
443.31454 49.595531 50
243.2068 50 5.5725245
778.49158 50 9.0588484
289.20175 36.86805 50
529.10962 12.039971 0
854.15387 45.18293 0
933.24353 0 17.167198
653.38843 50 0.1275748
104.98341 35.791771 0
165.79588 50 48.260307
512.10968 50 31.897999
915.55725 0 26.570414
221.83408 47.659885 0
467.07904 50 22.510157
782.48792 50 40.774536
255.58922 50 39.669266
555.98804 17.997732 50
615.43835 3.4231181 50
446.44373 0 35.335915
140.55293 50 42.197273
32.51173 37.594967 0
487.86728 12.067116 0
762.19373 0 19.87665
547.74554 0 47.380093
982.43597 38.822502 0
814.85645 50 12.044851
998.9585 0 26.610764
271.05121 18.120958 50
179.04698 18.138309 0
844.83319 50 34.60907
64.828003 50 34.564133
660.80823 9.1115217 50
773.28485 0 33.374168
78.160896 37.977108 50
717.69666 0 19.107485
80.097122 50 42.470963
250.34074 0 3.8928742
398.11938 13.682991 50
121.08095 14.792262 50
993.323 0 39.885353
85.863358 0 3.5862653
818.1933 0 14.272178
431.75055 5.4921122 50
843.25702 21.415689 0
246.40912 0 34.505699
625.71033 5.6909842 50
395.42297 50 25.668108
12.080866 50 19.548782
810.69629 26.64106 0
144.44615 0 26.26935
456.60529 12.229206 50
331.4111 50 0.95438957
907.39221 43.233528 50
615.84619 35.123558 0
212.2206 18.949614 0
912.1665 6.2201061 50
290.71063 12.962651 0
278.62488 0 19.164526
569.81049 44.491325 0
822.17908 50 37.150742
653.12811 50 41.241776
831.02771 50 19.511314
83.090454 0 3.3445883
184.02222 50 28.942448
719.28241 0 38.734955
965.64233 50 9.2016201
459.59552 31.092291 0
146.27419 46.426895 50
235.60014 31.11418 0
744.12616 43.888416 50
952.62048 22.088022 50
260.27316 11.989996 50
341.345 0 11.083253
103.50553 0 13.724786
787.76904 50 38.623489
1000 11.698446 44.945698
776.53149 34.724621 0
137.39793 6.5167518 0
695.93573 3.0310709 50
129.64926 29.444807 0
390.00519 14.614488 50
113.0473 0 25.600096
628.36249 0 30.729019
650.50006 44.419849 0
836.79626 0 1.9622015
814.17822 0 38.850967
160.97644 48.938065 0
853.28906 14.861443 50
479.9639 26.068184 50
189.82146 0 25.632858
412.47131 0 28.310209
212.05788 4.5521135 50
918.26312 0 29.88518
200.36319 50 27.335335
878.23279 26.110374 50
776.30487 11.203885 50
0 31.702053 9.255784
908.27191 45.054035 0
991.19751 22.969713 0
810.5528 0 46.073055
537.21063 48.854679 50
277.27856 0 22.088453
151.85181 14.468151 0
3.3639057 19.209927 0
571.37091 0 40.934631
608.30402 0 41.979919
825.19348 0 39.975952
32.733578 50 11.664978
680.65454 26.124477 0
381.52185 32.655178 50
448.23059 50 35.507805
749.7981 0 18.253946
771.91827 2.8216183 0
0 46.435932 15.5854
954.73999 46.014362 50
108.82037 50 49.059975
871.07739 30.554144 0
256.64554 7.3368459 0
926.99957 7.7083712 50
421.25919 0 45.184357
36.878284 0.35219193 0
26.971645 50 45.378063
239.21005 46.081333 50
204.61009 50 28.069269
796.74762 0 35.807655
20.280802 0 42.491131
615.24377 35.252689 50
557.7467 0 48.393379
371.70007 30.729305 50
1000 36.96389 46.730148
204.63086 19.140625 50
946.50806 24.781921 50
92.767342 0 44.208847
80.373535 0 33.413853
773.30225 9.4381342 50
974.24255 0 29.719486
1000 16.541765 33.596519
681.21869 40.106079 0
96.384972 40.616547 50
250.30965 33.096722 0
234.27112 6.9407911 0
783.35944 50 45.003277
186.02225 0 23.831327
812.70569 42.72987 0
187.27646 50 2.2957473
231.57922 0 37.329735
355.96478 44.266621 50
422.77277 18.682934 0
1000 35.259403 4.3027892
338.04642 35.288784 0
293.80914 27.896204 50
815.66602 0 22.315229
794.9104 0 28.668121
380.03168 50 1.6618341
104.58607 0 25.686377
706.26202 0 12.232237
846.16547 50 1.2258112
905.37616 35.465416 0
748.23712 50 8.6915226
976.74432 45.50209 0
95.810715 3.7352562 0
90.434311 50 22.433939
235.01852 0.95963699 50
6.4299889 36.880581 0
505.77301 0 23.790688
833.01569 0 14.676129
958.83887 46.319553 50
918.10559 19.27099 0
1000 27.929321 47.546703
518.87012 17.853399 50
71.812515 0 20.233471
46.623035 50 1.5617132
279.94247 16.232958 0
46.28154 50 49.991268
339.60797 0 30.008289
660.45953 18.649176 50
962.59998 50 25.366447
359.54706 0 6.972414
669.56158 0 42.349045
971.47656 44.297932 0
402.55243 9.9233208 0
153.41434 50 47.229431
52.467995 0 0.48492512
149.80376 50 15.892374
766.58838 10.853955 50
950.89526 0 28.077297
634.50226 3.7435026 0
626.62146 0 14.417957
949.16254 46.569027 50
612.09503 0 43.519203
718.28528 0 45.959484
817.25928 5.5828443 50
280.24905 0 28.392284
281.74326 50 5.8058262
123.34187 46.106163 50
464.59158 36.457054 50
558.45862 50 18.150286
548.61804 38.654388 0
259.40567 2.6714654 0
835.08545 15.284362 50
899.65607 50 43.009052
375.13083 11.599932 50
218.51106 22.683174 50
835.48584 50 35.927559
438.89642 0 26.957373
547.95331 0 3.3529241
151.05444 21.46839 50
675.30322 26.868645 50
719.95972 37.60463 50
76.834175 37.982327 0
599.09796 4.4624386 0
349.77478 20.066807 0
31.372677 0 42.90567
932.31244 0 5.9987574
0 32.3218 41.392761
940.08252 34.951088 50
13.063381 46.814548 0
304.08463 16.970814 0
591.98883 0 24.966629
273.96677 36.759247 50
675.45654 0 42.587082
252.58926 16.115353 50
789.28455 15.161001 50
675.90802 50 20.175446
966.91565 30.668673 50
528.77356 39.226295 0
247.98993 0 47.493477
563.41711 0 38.789082
361.28955 50 5.1189036
476.39618 6.999948 50
129.92828 50 12.627372
92.033791 29.642477 0
192.45422 25.060961 50
630.99139 0 46.518009
1000 42.244957 24.696993
562.58734 12.414649 0
1000 42.703644 25.117767
35.376766 46.742977 50
191.35371 0 21.374006
940.92572 0 4.452724
783.14886 0 23.935135
534.1543 30.571945 0
91.776703 50 32.484921
855.13257 19.034935 0
471.05441 50 4.5479655
659.48859 0 34.258278
773.89832 0 32.921879
464.67841 50 21.837048
565.42316 50 40.386204
992.802 6.5894961 50
187.06049 50 24.000687
149.19545 0 9.0857058
266.95929 0 6.0825896
962.43317 50 44.278702
715.15601 50 24.665504
876.02155 49.924557 0
139.2173 44.558338 0
162.38063 35.043602 0
446.49979 7.3815765 0
740.39001 0 42.49921
461.36572 50 44.268364
90.705536 41.350014 50
675.57477 50 20.473923
644.65894 47.992058 50
389.61029 0 44.239899
847.54602 0 23.260157
586.59692 0 11.546343
635.4519 6.1671214 50
497.49078 15.232927 50
757.12897 0 41.823334
381.72516 0 24.7377
554.62799 0 15.813832
999.53394 47.703335 50
311.68451 0 23.986092
701.12061 20.625433 50
544.42432 50 18.149086
87.75013 50 41.86224
890.4967 50 28.645458
906.33331 3.3845067 0
21.157396 22.246376 0
672.19824 18.709831 0
696.27496 50 20.540361
180.30597 22.787203 50
934.79773 6.3029919 0
257.16187 50 31.769901
168.17984 39.755569 50
915.17865 0 3.6055398
986.27014 21.39613 0
87.56572 45.909657 50
268.99963 18.089354 50
895.93396 16.316555 50
227.96658 3.4172535 0
665.62964 50 43.749573
984.39215 50 48.018257
976.66187 0 10.05294
48.972595 50 32.500175
311.66272 6.1089754 0
557.09857 29.504473 50
383.71777 11.15883 0
601.19122 21.20772 0
971.99854 0 33.382008
984.02368 2.4459589 50
559.65833 18.791548 50
269.6218 0 4.8633785
222.31207 46.89534 50
305.14581 50 1.4044613
382.19427 13.682919 50
173.55728 37.36644 0
888.86694 10.798364 50
755.43646 50 13.659336
770.71039 48.80312 50
339.10904 50 27.715536
295.52176 24.969463 50
102.74316 26.173475 0
489.03323 12.85261 0
575.15765 32.992767 0
276.39667 0 6.8932128
346.80338 50 21.304344
798.87933 11.137367 0
327.22656 50 44.501049
232.83382 25.671244 0
997.31982 50 3.4196002
896.09973 0 5.609139
452.81613 0 36.87529
771.66791 32.083309 50
395.89545 14.95569 0
376.89615 50 33.099583
579.31573 50 17.015886
140.21556 15.054888 0
250.80621 1.6906025 50
0.50250137 50 19.507471
788.24811 49.097694 50
919.59546 7.0248632 50
685.96271 37.138123 0
949.92993 33.223877 0
680.45428 39.850452 50
163.81125 50 12.000799
837.75281 0 2.036375
880.05768 36.137001 50
499.83267 21.303017 0
288.99194 50 14.84375
112.2043 50 29.355919
818.08484 24.866161 50
235.30417 40.934631 50
473.94296 0 25.753122
689.12329 50 28.573494
307.77753 50 32.24052
875.8512 14.512263 50
23.535652 7.6844983 50
195.57803 50 5.4456263
776.19666 0 17.501495
357.89743 7.8485708 50
570.91132 40.326744 0
445.50766 30.569994 50
79.765793 0.36525726 0
301.28046 44.362171 50
330.80023 0 28.240051
295.50955 50 49.057411
504.28052 50 11.632154
169.70314 50 12.704006
708.15125 15.698008 50
167.27762 0 44.855587
957.49884 47.791714 50
143.64999 36.255772 0
13.969519 50 31.300932
491.40616 15.135762 0
514.53589 50 5.2610726
753.05426 43.605022 50
129.14577 20.443857 0
278.53183 34.237118 50
342.37433 50 3.0981512
690.26447 20.042923 50
629.96338 42.452675 0
657.37946 49.599377 50
786.15063 50 36.719101
3.7665136 0 33.000298
918.52209 0 45.05875
171.85442 50 47.375679
559.99829 50 31.392931
282.49368 22.463486 50
779.52405 4.7276435 50.000004
187.96342 0.32914877 0
60.515324 16.379007 0
480.16867 0 25.794563
93.12545 42.370659 50
798.41199 50 25.682213
331.35999 38.154488 50
153.06244 50 29.63311
819.52423 0 35.927799
277.32074 6.5536141 0
516.42194 0 38.195454
825.30664 0 14.414602
316.88126 50 0.17961264
915.52173 50 25.358603
318.25354 0 6.5358005
763.89734 0 39.046871
892.43335 32.626312 0
54.436142 50 11.754641
136.00044 0 18.460905
662.10767 34.408096 0
998.34528 0 41.626431
0 48.934261 18.247307
707.71539 50 18.841045
685.94806 0 16.861334
321.33752 21.044865 50
50.238571 50 8.7414179
454.47308 41.945831 0
194.14102 24.422655 50
234.62912 14.113485 0
414.70578 37.01667 0
636.01288 50 23.824291
784.9389 0 33.03965
295.81647 0 8.0083208
189.42705 30.641388 0
132.66899 10.41219 50
526.2998 6.8212757 50
774.96088 50 5.0772758
149.67403 0 1.984103
596.76562 50 41.686256
356.06512 0 11.946474
403.45605 0 14.663772
826.05371 8.904664 50
452.76794 50 3.8500071
243.23927 50 29.467091
25.957304 0 16.496681
541.98102 18.789085 0
413.8996 50 45.735123
645.53143 0 32.569786
631.75366 50 38.553127
70.402184 50 46.283924
72.446907 13.824484 50
14.413032 5.5380654 50.000004
882.28442 50 29.71682
983.72498 50 43.826042
901.68127 50 47.045059
51.689709 16.380142 0
429.74249 0 10.436178
412.17981 45.796513 50
948.04742 0 45.275852
35.174812 50 3.7847548
175.82393 0 24.236069
309.05475 1.4240891 0
802.78455 49.999996 48.43874
436.85583 43.144482 0
595.4679 11.453783 50
843.35333 0 44.895542
939.34198 0 20.771196
115.42928 47.731033 0
390.46851 0 0.74900216
313.46497 50 41.536819
287.22867 50 46.753227
84.431122 0 25.414652
68.029205 0 35.105213
452.97873 0 46.054008
483.82394 17.328297 50
889.44556 32.616974 0
586.01562 0 39.187302
386.68179 0 48.640263
54.583511 50 19.848406
930.04871 0 47.627426
664.69257 12.856524 50
727.06616 50 31.577354
473.96686 0 48.680244
350.06763 0 16.354156
279.74609 0 11.337598
65.030655 1.3487577 0
768.03516 32.743286 50
125.41621 50 15.17846
380.3006 50 41.872696
807.06726 50 31.483685
86.176285 50 13.403002
879.51794 41.085567 0
772.22546 27.416084 50
392.27237 4.4959602 0
657.55139 0 47.463753
482.09955 13.750717 0
137.13748 19.556623 50
304.58377 8.8280849 50
464.29742 0 36.470654
565.30383 19.588442 50
711.85699 0 15.50437
667.99182 50 15.4479
814.34882 42.52523 50
823.10663 15.124327 0
991.17664 50 5.9604902
17.073402 32.71703 50
990.69055 50 43.882545
335.58755 0 20.025009
557.02509 12.433937 0
828.62018 43.503422 50
2.5731664 50 22.624184
933.19867 50 0.5369395
548.71429 50 33.550644
32.853188 50 6.7657351
342.3537 0 34.77879
594.3244 41.946285 50
401.53635 13.46142 0
356.00449 4.9035311 0
476.8085 19.347757 0
375.98743 50 32.457733
958.47803 50 4.6356621
179.38832 24.689129 0
337.00662 0 45.165779
739.18744 5.8127313 0
754.02063 37.257801 0
235.29257 50 14.242339
473.54669 8.503562 0
602.46185 0 17.478363
691.16077 0 27.813478
933.04395 12.299153 50
935.00995 47.32531 50
696.97186 20.503807 0
772.16003 0 32.150864
493.00458 0 49.802006
735.37952 47.056938 50
492.60236 50 0.22021234
937.09741 20.470728 50
760.65259 21.833626 0
828.20343 12.933468 0
663.38892 20.108799 0
1000 30.457384 48.856079
231.44254 29.85791 50
139.74983 12.8995 50
147.65425 35.074242 0
371.89771 27.353853 0
640.2511 43.454144 0
858.84406 4.6218815 0
964.8349 8.5690107 0
185.46164 22.102428 0
470.55713 34.454807 50
214.89622 50 1.2211174
666.99933 44.912533 50
781.9967 0 45.710636
736.97113 50 49.225235
441.8895 50 10.521743
654.90448 50 22.576427
383.28464 0 49.248966
78.390762 1.8503566 50
837.15564 0 32.95517
452.27399 44.849636 50
536.49585 50 11.565596
586.40326 0 0.87898511
165.84039 40.63908 50
395.36041 27.114243 0
486.70041 5.4071159 0
40.038353 42.593559 0
612.14392 3.1926172 50
72.776062 20.161701 50
547.98474 0.50070584 0
714.61481 50 12.616146
5.810545 6.3302903 0
550.16223 48.36467 0
637.23853 44.784096 50
223.14275 0 12.374246
56.764263 50 19.275661
918.60193 30.565762 0
70.922142 46.666203 50
390.15338 48.939842 0
811.03259 26.364721 50
914.41534 50 15.586649
488.90179 0 35.727776
315.02872 0 3.4148567
628.12091 19.467434 50
35.423195 36.895973 50
480.61746 50 42.847672
387.6525 45.828716 0
357.13715 0 23.995634
975.32983 41.013611 0
366.01892 42.027149 50
939.25269 40.481834 50
854.66382 1.1520426 50
30.161076 0 5.6404409
811.36194 43.002472 50
312.15411 6.6121702 50
592.63501 12.083208 0
445.98099 28.904865 0
246.41301 45.525829 50
731.18372 48.099144 0
451.13156 14.285861 50
883.46283 49.999996 46.554138
806.78223 47.717846 50
330.9437 0 2.458138
609.03143 0 44.150127
47.005356 30.303434 0
865.37073 7.1859527 0
52.167713 1.8108575 50
784.23596 14.614245 0
745.83728 50 15.601776
596.93732 49.853302 50
89.828835 4.7037477 50
976.92999 0 34.337528
355.1705 50 4.9848108
128.01006 0 37.755478
86.55484 0 35.666866
911.52197 0 19.5765
823.828 12.673999 50
197.2276 0 31.058989
508.34653 16.090914 0
119.00561 28.066618 50
785.26947 50 27.480595
153.52554 12.513227 0
797.505 0 25.769203
40.264896 50 4.7220287
573.69794 33.968658 50
786.32623 0 37.024563
431.69461 6.4839644 50
496.72797 50 30.602379
243.1396 15.030182 50
823.61328 21.826685 50
446.9234 8.3006477 50
682.41382 0 10.946137
223.77568 50 41.551239
643.97974 0 18.249887
687.77313 50 46.934727
131.95717 25.790125 50
912.2124 50 16.07526
808.75348 28.315987 0
686.08789 16.792536 0
1000 47.349815 45.890007
215.28386 0 18.282335
605.53284 10.693148 0
185.37383 18.88784 50
986.1438 31.05443 0
454.94809 0.98395646 0
238.90373 0 14.534715
733.05927 28.056494 0
129.66348 50 49.294178
617.11969 0 7.2946877
40.167591 45.082157 0
515.23621 23.997751 0
477.34073 22.920422 50
142.5406 0.93728304 0
644.51892 44.593739 50
632.86316 34.388184 0
950.26904 50.000004 43.839699
918.07025 50 5.0703239
697.81677 50 30.653248
913.61176 45.841469 50
93.101387 3.1087279 0
601.36444 22.456884 50
716.93616 47.728355 0
451.09351 50 46.609447
173.44043 0 3.6363351
228.76074 37.341995 50
264.51636 49.197819 50
122.21106 0 28.985321
31.426506 0 4.9333324
392.36288 14.39308 0
893.70905 3.5024972 0
219.91628 0 2.4048264
285.90161 27.677923 50
546.66614 13.912581 50
625.77142 0 33.265106
978.7049 0 18.372519
129.64078 0 23.911228
334.2641 42.622375 0
128.55394 44.84198 50
843.95667 50 21.899712
98.311722 6.8832068 50
624.49487 0 29.005701
385.97473 27.352119 50
498.64206 50 16.003281
0 40.727222 9.4857836
398.19827 38.638321 50
531.91437 21.910744 50
447.80847 40.208771 50
297.69812 50 48.255325
776.34991 14.980469 0
430.47058 0 33.955177
677.29688 0 7.5645514
827.35931 0 44.674076
221.18535 0 49.097694
263.91461 0 46.221024
719.755 50 26.770508
822.35583 0 41.023861
418.22031 50 48.394455
225.24803 0 13.494949
10.963463 50 22.947985
321.34592 0 22.629293
379.24048 0 48.077034
933.16272 0 28.188858
804.76892 0 28.883678
859.5719 4.791369 50
855.55493 15.099837 50
388.78885 50 4.607594
563.98694 0 19.024801
614.48462 47.375259 50
538.53235 0 37.218182
285.91504 0 4.1892562
510.68463 50 46.068108
183.24074 0 39.706604
730.82495 50 21.612621
425.96127 31.271151 0
660.68463 3.5402508 0
1000 21.925228 12.648555
68.627037 19.570086 0
747.62201 10.346727 50
767.29736 50 14.132015
263.24673 30.480474 0
917.55988 0 1.2836006
1000 12.796172 11.018773
822.35474 23.235809 50
275.78049 0 48.073067
614.41614 49.620907 50
1000 36.08556 25.159796
982.14716 0 40.714882
570.14673 14.866543 0
148.45084 24.048038 50
484.26749 0 27.717865
171.47733 34.569759 50
651.4491 50 33.823578
801.23956 36.971958 50
70.823326 0 18.592682
679.09839 50 18.256935
31.445704 14.246607 0
561.58282 43.714237 50
458.37506 44.021202 50
34.604004 50 11.167669
66.819817 0 42.966087
201.84488 27.952215 50
117.60719 40.14325 50
705.93213 50 30.723511
817.38861 0 13.989016
158.51573 5.6275101 0
212.11955 50 33.187233
382.62341 38.171478 50
1000 26.476395 6.6009383
207.72783 20.888609 0
46.159275 41.57634 50
131.5576 0 45.889709
1000 12.758255 34.912998
748.34381 4.2026548 0
249.85138 15.23187 49.999996
744.32727 50 28.911697
955.5824 42.486557 0
520.99402 0.75877905 0
23.085381 50 15.075636
345.01105 23.813713 50
951.78156 50 6.2923508
409.4892 13.497981 0
127.12232 0 1.1103889
315.06436 9.9471245 0
785.07477 50 6.5009651
132.39241 50 16.603275
10.413713 31.306103 50
55.620472 10.066355 0
122.59153 4.6092749 0
23.455023 0 31.628567
465.26538 0 49.097694
203.60872 0 19.72753
792.92981 17.522585 0
367.37079 50 9.9480782
38.515388 39.072968 0
147.67236 25.366575 50
309.92245 50 23.965496
437.15051 18.01 50
508.23837 2.6553483 0
950.20551 47.24894 0
728.61932 48.45533 0
815.80933 29.213949 50
76.188683 30.869341 0
143.29863 0 46.371811
535.77606 0 29.783716
287.64258 23.974287 0
847.82416 0 6.1326604
392.66992 0 11.444059
538.16949 44.586605 0
950.04321 0 16.184904
504.23407 0 20.30986
850.53491 26.961966 0
613.58167 36.162888 50
421.33826 50 26.287422
522.67041 29.168991 50
818.77582 36.069923 50
606.81793 33.146633 0
305.27615 42.145523 0
5.962388 50 10.609773
423.53339 50 12.734702
795.8653 0 1.1449364
293.15057 40.411255 0
433.91241 0 42.319309
500.60828 0 44.73637
56.603268 26.138329 50
723.13867 50 37.504105
269.14374 50 26.45046
887.68903 50 10.492866
311.79514 50 27.004492
60.674431 50 33.984375
190.2748 0 46.487656
42.683308 50 4.7363548
901.02441 5.2187309 50
965.46289 22.97226 50
196.74915 39.23011 50
842.29785 50 39.749416
85.823906 0 12.554811
202.69443 0 4.1299205
757.45807 42.447968 0
807.34528 50 16.31649
734.64752 0 17.485258
549.39728 6.8178234 0
861.94861 0 1.9750259
755.3891 5.4471259 50
793.72369 46.712772 50
968.43365 50 7.3746486
38.359035 19.712076 0
806.67346 50 31.852291
670.91632 50 11.272925
446.12769 31.512222 0
177.4856 0 33.241016
52.362041 0 24.105076
1000 48.368053 31.804121
55.14045 50 26.619535
980.86475 50 45.302811
835.65063 0 18.951336
908.09888 50 35.065765
960.72955 2.2796135 0
312.94345 0 7.4440479
32.073841 50 43.028683
28.894915 20.411608 0
24.399143 50 23.578613
836.81763 18.622208 50
173.08919 49.021492 50
484.2023 0 12.729781
379.81723 33.523273 50
483.11362 48.681133 0
605.11108 50 30.585386
927.04419 38.140419 0
814.07727 20.141027 50
848.43848 17.571896 0
1000 14.26048 2.8215985
625.07086 46.582146 0
983.24414 37.459244 0
505.52795 18.636652 50
982.04272 25.314163 0
2.5665617 0 20.512463
25.281328 50 27.165974
81.794426 46.428715 0
834.14679 0 42.404858
18.052572 50 28.659931
594.39282 20.419407 0
291.64902 10.305887 0
997.83838 43.761177 0
98.833893 44.737427 0
553.16846 50 40.836273
713.09583 50 29.312876
420.57422 12.221595 50
441.71329 37.864441 50
669.75635 0 21.235214
0 6.3503165 35.923576
711.77185 0 22.335381
639.91309 50 20.345695
19.584082 40.411285 50
11.537175 34.962208 0
889.83325 35.430019 50
662.14575 50 25.773979
289.03574 31.16321 50
926.25 50 17.038422
876.82495 4.2863588 50
341.47 44.080086 50
396.48041 5.7806206 50
910.81946 19.208504 0
386.35672 30.001678 0
747.22321 0 8.8508606
631.96051 50 17.175877
674.01514 50 23.248011
379.86682 20.797026 0
306.1532 0 3.5180931
4.5952191 39.672421 0
421.38873 50 1.7234266
639.24597 47.933205 50
173.75378 6.4279137 50
355.7829 20.562836 0
119.13835 50 32.982018
155.31505 0 9.3871984
531.72992 42.222153 0
691.57776 10.08451 0
615.30402 16.667303 0
774.64825 14.761055 50
242.53087 31.007427 0
18.596077 46.233402 50
830.71631 24.163616 0
641.79669 27.517523 50
3.7203662 44.018208 0
128.3515 41.782936 0
214.87758 50 3.6891043
938.8125 0 30.935097
429.48941 10.489869 0
743.63599 36.671116 0
1000 23.306345 30.581699
142.98898 44.332001 0
85.264992 0 28.958988
561.54059 50 20.583576
405.40475 0 29.464363
1000 30.108786 1.4077065
9.9696541 19.632549 50
999.30902 29.451538 0
822.40802 0 39.134712
530.93372 50 8.090106
268.61792 0 22.403971
596.08197 9.4723186 50
711.7522 25.478245 50
852.55798 5.3427267 50
460.60873 50 4.5521617
765.39484 50 43.162216
726.98047 50 14.015466
277.64746 22.346003 50
319.50198 50 34.683071
500.38559 43.743023 50
842.03882 0 45.368027
461.79761 41.028641 50
271.87708 0 10.47943
300.79846 50 43.019245
591.8222 10.92676 0
728.35608 47.325432 0
525.37219 50 8.125618
486.56256 50 7.1521578
221.37819 0 45.503201
347.18665 31.730186 0
281.87778 28.852066 0
405.09009 0 29.514812
314.39337 47.426765 50
597.81244 50 11.016682
715.31116 0 33.365742
406.67352 47.066101 0
231.57698 34.237118 50
934.90002 50 28.363569
509.56055 0 28.390942
345.87811 50 9.2634115
303.84073 30.546274 50
676.45312 50 32.008259
55.875927 0 3.7771637
995.28693 7.3362064 0
52.048912 30.047512 0
850.14386 0 31.026857
842.40759 0 22.528975
931.59033 13.8014 0
632.66791 16.347412 50
308.43158 0 22.400564
82.159218 29.741419 50
271.42117 18.60499 50
842.47552 33.701618 0
0 7.9503183 14.121914
379.54095 0 22.316963
993.5484 0 4.1907873
175.50793 0 1.904537
356.11551 50 18.681713
505.30853 0 22.961683
183.63524 40.009041 50
60.629993 0 0.37856847
409.85654 6.3530087 0
755.47949 50 27.337721
122.09599 50 46.763737
907.68195 30.948139 50
949.07367 15.075158 50
308.96826 36.45496 50
173.92223 3.1787424 0
890.41864 0 39.13776
457.65021 16.392628 0
83.503265 22.016415 0
405.76547 28.368088 50
358.08987 50 21.289726
477.06796 50 39.524597
473.45203 50 29.102951
823.05939 50 30.322041
156.97649 26.343792 0
634.73779 5.4011555 50
773.1106 50 29.998182
118.825 50 33.626335
933.87457 50 49.878555
497.37762 0 35.728844
72.200356 0 7.7290468
400.86627 39.802032 0
224.07803 50 40.364902
291.01282 50 43.025612
240.88902 50 1.7574161
440.19662 50 36.392731
344.61374 0 21.447056
616.99811 0 15.419666
569.44568 0 13.347462
701.43622 0 3.8462076
553.62256 50 33.113083
828.03278 50 16.558508
809.55951 6.4363298 50
369.62747 50 27.630108
303.13849 40.19928 50
537.48132 6.606503 50
764.42816 0 8.1738958
270.60028 0 29.813158
313.34778 47.95787 50
909.57611 50 40.860481
47.854767 19.78931 50
570.78302 16.716627 50
836.5592 50 36.783752
392.45844 50 41.828705
477.64978 0 14.484946
682.46082 0 28.336199
289.44675 0 22.910748
916.77509 50 1.1148781
694.90326 0 4.2568727
883.08575 2.6182981 0
110.4444 0 16.496681
786.49408 29.727043 0
845.21289 0 23.293827
549.47198 0 41.969925
545.23596 0 23.505926
109.29279 4.7848158 50
651.12085 39.713707 0
558.9491 50 29.907566
806.14209 21.929642 50
1000 12.790193 38.815643
931.11658 32.016685 0
213.15594 29.753336 0
731.49585 41.606079 0
77.351738 0 39.006798
56.35532 0 49.587841
386.70905 8.7353621 50
664.58752 16.945543 50
78.437485 50 47.591034
378.15436 50 9.8881187
935.4718 50 42.464706
904.83801 9.979908 50
704.53912 50 8.1055822
662.09198 50 40.020229
285.3754 12.163761 50
0 12.9332 28.26977
1000 34.615093 49.15868
982.47955 45.042747 0
369.91864 50 22.677183
760.13782 7.5966501 50
742.06812 0.35590202 50
1000 29.953203 42.187538
553.31036 0 29.728592
536.37909 14.425233 0
926.29126 50 7.5040426
138.85872 6.8381457 0
499.77139 0.88350016 50
683.51282 21.601307 50
701.763 39.714268 0
376.36938 49.20945 50
908.05884 43.503719 0
112.06653 0 6.657836
948.18225 34.995411 0
63.289898 50 9.3674898
336.17178 29.508007 0
497.13037 0 34.909069
623.10425 50 37.671783
676.02649 50 14.715942
720.24731 22.060089 50
172.00674 26.515347 0
481.47147 0 27.842823
121.17204 0 43.158318
264.78802 0 40.800217
949.8327 50 30.148708
21.10906 27.585815 0
760.70673 50 24.795713
835.53143 45.478046 50
241.31061 48.126999 50
709.28125 36.46796 0
5.9270563 0 37.639107
396.73315 50 41.436268
936.50415 50 9.9723024
795.9325 7.7759857 50
580.36371 48.390224 50
780.01587 0 35.321571
37.283577 0 12.720828
163.05461 0 42.915447
768.29523 0 16.58313
80.570335 50 4.7768264
653.138 9.3025627 50
524.70795 0 13.996938
677.72504 0 32.867264
962.3045 40.708576 50
763.72363 0 45.256062
149.67374 20.955858 50
30.611458 50 15.291479
737.75757 5.7938881 50
36.157505 41.909252 0
771.51752 13.578928 50
789.06885 50 28.248461
243.73967 27.240318 50
722.70886 17.368347 50
621.42542 0 21.982595
879.72192 0 12.04379
1000 39.120644 26.89835
897.44592 0 40.113178
833.31421 7.5861454 0
16.624649 50 27.837408
338.70392 0 12.90132
432.9975 2.5005956 50
72.699142 25.044212 50
581.69043 0 45.74234
311.37839 14.08275 50
315.526 29.052364 50
924.11194 0 49.409817
668.74298 0 19.009771
841.68628 50 4.504344
851.93152 37.554951 50
402.55859 39.729656 50
303.10461 23.541435 50
1000 46.674328 23.012568
704.1709 50 2.1974893
1000 47.683868 29.345516
721.1145 42.796173 50
984.82477 50 6.3604875
658.96442 50 6.9089084
28.479925 4.9948092 50
139.07538 0 17.287086
623.9267 0 39.058594
701.06696 15.369582 0
378.34888 0 10.052872
948.28204 50 2.0429254
549.29346 50 41.572285
344.90088 45.146267 0
941.56195 48.85302 0
12.277832 19.474962 0
664.71625 50 43.662758
828.96448 50 38.645222
324.28534 0 7.6674776
621.93964 3.2146037 0
475.23679 39.653671 0
151.37596 3.6421747 0
519.9104 42.455204 50
629.50189 43.578369 0
832.47351 8.2102957 50
518.71832 24.184824 50
136.54961 50 7.0836601
1000 30.136602 22.41251
165.23245 50 49.616936
627.69855 29.29027 50
245.08478 47.848774 50
759.49487 22.768885 50
986.48535 16.714937 0
618.65338 50 0.14746487
618.99915 25.862566 0
893.63745 0 13.762614
524.80225 4.4111876 50
189.75089 6.4641585 50
561.38715 50 21.46298
546.87714 0 26.105532
766.88092 22.215401 0
387.12311 50 28.142447
29.971285 17.043655 0
697.64142 11.571553 0
356.55322 0 24.615574
434.40454 50 14.44025
197.73695 15.065673 50
865.55939 48.763241 50
696.2204 0 8.8400126
940.93567 49.999996 37.844559
130.67644 50 48.329124
801.60291 50 9.6539021
675.24982 35.119335 50
462.05591 9.70292 50
945.21014 24.678314 0
42.023346 0 18.267723
25.789045 32.552212 50
580.79193 49.265766 0
613.70496 50 24.152353
233.59517 50 18.066555
693.16125 49.540894 50
773.5246 31.39032 50
279.72455 50 42.716911
935.72852 6.4578457 50
74.548286 20.939468 50
873.06079 0 36.201584
89.745308 50 41.824825
238.60854 50 15.972999
39.09095 17.45599 0
675.38489 0 34.99638
334.72614 0 5.5686378
767.94476 0 13.912258
148.45982 50 48.90992
814.14136 50 40.649033
499.13556 50 37.312
423.8111 50 17.576948
718.32214 33.775822 0
998.46692 17.611803 50
698.88 0 19.31456
837.48004 16.934963 50
224.00412 20.174047 0
161.24683 0 19.048727
234.75398 34.643417 0
677.81006 33.657261 50
262.56805 50 20.595249
676.23438 26.770704 50
240.14081 18.229433 0
144.89648 50 7.3484716
762.30377 30.901554 50
570.70721 11.165995 50
512.62012 26.902834 0
601.74713 0 42.486641
911.8501 34.813843 0
943.72821 0 40.108082
813.14783 0 4.3236833
381.48911 50 7.5789509
923.08447 13.243787 50
241.25627 50 1.0010809
878.68976 50 34.522621
995.48596 50 20.403589
184.92007 24.970991 50
707.20062 0.72393119 0
935.17993 0 12.869616
123.12244 24.380445 50
136.02936 19.148596 50
229.08517 0 49.301609
584.16138 50 38.784508
599.72546 44.904037 50
282.74463 0 26.634211
821.8833 26.266687 50
169.92938 15.228889 0
631.77728 19.161018 50
672.20966 0 32.624969
452.87778 0 8.1521101
496.40137 50 30.495609
512.45245 50 6.179431
967.07849 41.678093 50
919.79889 0 48.781227
278.23004 0 18.666399
624.51404 2.1287022 50
957.90601 19.86216 0
682.9325 0 23.438917
56.341797 0 49.023048
996.9469 48.412262 50
94.390541 0 43.76046
312.7034 38.356911 50
309.4436 50 45.388248
254.81746 50 23.716133
284.12915 17.437241 0
811.62183 50 36.225189
648.18884 22.301989 50
120.95878 50 2.5547385
844.34613 0.79752803 0
372.81778 15.811994 50
0 46.644943 15.302526
194.35954 50 0.51457882
924.69775 28.650877 50
513.8703 35.080212 50
124.21043 37.568096 50
454.00784 0 37.160736
1000 26.689154 36.304413
730.60083 4.1144462 0
142.48888 24.345999 50
770.9046 46.495823 0
195.31387 0 48.743675
96.957794 4.8710799 50
671.56787 0 34.729397
414.97891 25.656658 50
520.4704 18.47896 0
455.50195 32.000042 0
36.734592 33.736523 50
0 36.207165 11.210874
790.29303 29.403034 0
586.45465 50 18.662231
645.07324 42.954727 0
240.53758 49.940807 0
415.21158 50 18.734137
246.20776 14.999695 50
379.23187 15.53697 50
584.24927 50 20.08083
368.62833 0 43.787476
527.07001 40.538521 50
837.71222 5.5435271 50
584.97614 0 17.336248
457.50867 0 17.183399
222.34296 0.86502731 0
386.24399 50 7.3771029
443.76068 0 34.942928
470.73627 17.160202 50
851.57068 0 12.375554
713.61115 16.253521 0
405.61539 16.853689 50
866.4989 0 36.543324
661.7406 29.807707 0
714.56146 24.673071 0
396.65714 48.218063 50
595.36053 0 23.338039
786.01855 40.861626 0
111.37366 0 49.531651
861.74451 50 36.749184
956.71008 0 1.7612364
231.78868 31.653095 0
922.77588 41.023952 0
923.58832 0 38.965782
143.37248 14.769034 50
90.636719 40.304939 0
5.2052217 50 23.26572
787.45874 0 26.129068
400.12329 10.252106 0
139.06702 0 22.527924
24.126291 17.638784 50
611.99658 50 13.860327
753.90295 32.884541 0
712.32623 47.666489 0
302.18268 0 34.499065
476.87296 26.678572 50
888.15198 48.380764 50
72.897987 0 13.604745
598.93921 6.3163171 50
447.27332 8.9713573 0
306.64917 50 37.816963
859.42389 42.901352 0
777.06335 20.521832 0
11.389846 0 30.34329
201.28687 50 14.618775
944.13928 50 32.779457
748.47534 0 16.127398
789.44995 0 5.0142703
488.87741 20.231659 0
1000 44.670113 39.426609
304.43317 17.894999 0
744.11066 0 24.575096
192.77768 0 28.669054
773.76715 34.92836 50
601.60425 35.741776 0
789.67072 19.879261 0
702.41968 50 29.78793
188.44164 14.855689 0
870.58051 2.7335672 0
743.03314 6.3857245 50
273.63138 17.554237 50
888.06488 5.0688124 50
516.51404 50 16.491524
872.84277 0 17.777264
345.38968 50 2.7206569
184.75624 50 37.780865
212.80698 15.695641 50
766.47949 0 16.135267
585.23126 50 29.243835
400.62363 50 25.153055
0 47.726639 4.621479
776.67609 31.606178 0
943.39215 2.3518338 50
164.83774 41.092377 0
926.18896 29.945818 0
248.5889 36.161728 0
422.302 4.9791574 50
50.270142 19.719633 0
713.41852 30.418383 50
977.57239 50 15.549832
903.46423 0 19.335188
432.85046 11.957409 50
790.28186 10.338471 50
567.66272 50 22.883362
33.58411 50 30.754036
804.75647 5.2426066 50
312.58395 50 35.987675
820.76685 4.9563284 50
230.51312 33.565872 0
629.46759 11.495648 50
221.10539 29.836411 0
103.57643 17.793816 50
810.24603 0 26.93795
426.83759 31.444984 0
193.24889 41.507469 50
78.016975 50 49.739681
845.42902 0 33.323334
129.22655 39.955608 50
688.00458 50 15.329969
519.32666 50 20.158705
579.83295 50 41.805378
717.63043 23.108435 0
802.37683 15.343912 0
648.88055 0 6.8541822
519.39093 50 1.7645329
280.27917 50 16.872791
304.4212 50 20.235502
698.61865 0 17.37398
400.08624 50 22.501833
2.82234 50 42.481102
977.53235 25.302334 50
67.149872 49.5355 50
876.1106 26.423302 50
995.73584 25.758217 50
454.59763 48.588474 50
156.72446 50 25.413889
680.3418 39.593307 0
825.58936 42.487255 0
540.66107 36.45496 50
23.585312 50 9.4520721
218.7184 0 49.257488
835.42273 11.014112 0
498.06866 40.904045 0
181.44388 0 38.987232
538.17743 12.872127 0
835.50171 37.497849 0
406.29108 34.39608 50
603.1424 50 8.8117485
384.98041 15.329969 0
990.21863 39.575237 50
60.628658 0 33.277721
516.65417 12.34831 50
235.5972 26.369608 0
249.25656 50 45.828918
420.75238 50 32.218582
659.41547 17.847694 0
681.24261 17.455498 0
686.34802 50 34.686314
5.5034161 50 37.54586
332.9144 25.696342 0
357.01266 6.8540573 0
348.30536 0 18.460905
622.341 50 5.7273479
527.26868 1.4654595 50
547.6582 50 14.967665
723.90399 50 49.48159
430.76056 8.5992785 0
247.39392 50 44.463146
281.04825 48.35006 0
349.15991 21.541956 0
164.8109 50 34.790688
754.75977 37.28196 50
74.343086 9.7476158 0
579.55762 50 21.061808
199.18507 34.083012 50
647.00928 0 0.37009308
162.43962 50 2.2102594
79.611565 0 34.379436
689.2854 50 42.556816
666.22693 3.3068299 0
858.77063 0 32.943756
880.35974 50 19.922651
861.46161 7.7644253 50
463.31894 29.79908 50
572.0354 29.668945 0
805.50824 0 45.193642
383.84155 0 16.176813
891.50562 49.999996 42.097591
564.07007 46.722569 50
692.64325 23.578279 50
415.02136 9.8386974 0
278.93649 43.682812 50
772.66467 50 24.996662
561.59326 0 46.708687
852.94092 40.352913 0
94.41938 48.815624 50
451.02386 0 8.644392
13.084484 50 3.4975739
703.82513 25.165958 50
163.64308 21.104599 50
861.96411 50 2.9503584
448.84088 50 21.517839
393.4046 25.502485 0
441.22971 50 41.292561
931.61731 28.913837 0
296.15085 24.89296 50
906.10754 10.381173 50
790.07831 50 20.610229
756.74591 50 31.476879
300.23755 36.652203 50
771.54456 0 3.9338117
611.06042 0 16.912636
945.61005 0 2.1201544
550.13324 50 41.713181
734.68512 18.727642 0
310.57739 8.6102228 50
872.40131 0 13.172788
375.76047 0 10.417543
685.54395 0 13.08695
665.2605 50 0.27541816
901.73865 0 10.463375
136.58839 14.590755 0
808.11517 41.282612 50
702.05963 0 25.392309
81.528046 50 17.17239
152.65332 37.17408 50
580.63855 0 25.287603
45.926689 0 39.582478
112.60597 0 18.635719
880.03131 0 5.5001464
352.58804 21.350912 0
770.47168 29.266726 50
377.03055 19.146603 50
487.46564 50 29.741997
988.48853 50 19.908398
774.16254 42.334633 50
410.50839 50 19.283113
807.42572 50 13.168146
519.47601 50 36.444908
780.61908 0 23.591885
554.34711 42.764965 50
707.76678 38.885216 0
170.90294 15.406182 50
375.84186 8.9058771 50
804.75421 49.417538 50
822.65857 50 0.47605038
930.00256 20.382626 50
975.77209 0 6.1847348
946.42432 0 3.6801283
950.60364 50 33.916161
884.18317 50 19.954327
784.04156 2.2281177 50
887.1618 20.266077 0
882.4325 11.459392 50
41.275673 0 8.7564497
1000 1.3221055 1.3756021
692.36298 50 40.040852
545.33344 50 32.303169
594.0694 30.320654 50
455.23685 0 42.443523
481.24194 50 14.69973
957.73419 40.791492 50
105.26328 50 12.670267
822.06836 0 42.804192
170.27066 23.160339 0
436.77731 0 43.827534
898.02942 13.734678 0
937.79816 0 42.183884
647.5116 5.9121566 50
52.686268 50 7.4353161
35.913784 18.916458 0
601.11285 50 37.898819
122.93171 0.87357402 50
662.42975 24.736248 0
1000 0.83941221 35.901272
978.52863 0 16.078384
653.43506 16.005526 0
157.69632 1.0431331 50
459.97464 50 48.039646
168.15662 50 43.457249
842.31836 14.840824 0
965.19727 34.424385 0
686.36639 50 14.573521
80.321899 0 37.428726
723.58997 27.809834 0
158.17429 29.35038 0
874.73895 0 45.622089
704.82837 0 2.451098
236.00664 45.93956 50
504.21863 20.195602 50
597.89154 24.493448 50
648.05341 50 11.623207
831.28876 0 18.255875
936.35364 12.496327 0
816.073 22.902712 50
97.659096 0 28.334454
510.28906 0 1.9935265
136.24405 50 30.596119
868.19098 11.38042 50
803.68518 0 1.8147852
640.68671 34.126633 50
157.55463 50 19.68438
216.31831 29.007689 50
433.43146 50 11.330098
348.32092 16.9893 0
940.46265 0 11.680682
820.91711 34.227242 0
246.80063 43.540234 50
460.79868 0 47.867905
280.65918 6.8151741 0
160.03571 29.234308 50
820.23389 0 29.62829
184.70618 4.3385434 50
853.45807 0 43.751743
257.86359 0 19.509754
161.74158 39.540051 50
715.74426 47.804214 0
961.50873 45.488136 0
472.64804 14.332065 0
135.62619 8.2633581 50
142.43445 12.438815 50
872.6593 0 38.616787
816.92175 50 46.406128
9.5113144 50 14.902392
176.51672 7.7185659 0
411.00046 0 24.157242
348.28165 50 24.53137
676.94525 50 22.242594
181.91786 32.302921 0
939.17596 50 31.086128
823.24158 25.057331 0
127.07893 0 36.380589
378.20819 50 21.079237
0 10.569635 10.964105
822.24304 0 25.659836
366.54425 42.654259 0
0 2.7459264 16.580927
458.01846 16.470058 50
740.74463 0 11.768761
343.89951 26.415611 50
756.88696 0 16.212439
149.20067 42.277824 50
212.26105 43.438484 50
709.24524 26.567661 0
189.73378 50 6.6564651
516.31519 44.31356 0
23.567238 15.876876 50
520.27368 21.358902 0
98.569649 0 43.518326
938.86395 50 11.870401
616.56342 43.664467 50
126.0957 50 1.3550311
261.36151 50 4.9958286
809.74524 0 29.209415
515.05939 0 46.975803
614.31879 38.672863 50
816.45483 50 22.553169
118.06403 50 14.310682
212.96533 50 6.7683816
850.40485 38.128117 50
983.43005 45.420578 50
181.71017 50 24.746462
570.62762 50 49.487499
635.64642 7.5176597 50
697.73663 50 11.811537
466.22647 50 17.477095
174.93405 0 19.529297
1000 17.647617 14.144294
654.44147 50 0.55854023
83.476372 50 24.766108
199.67339 50 37.30619
81.927689 22.611645 0
571.75873 49.519634 0
196.94945 40.063988 0
359.0249 19.876253 0
716.17169 0 45.256905
0 1.2925366 35.255489
62.916058 0 28.801807
622.94281 6.2543602 0
306.27792 50 9.9995432
907.84998 0 30.373619
394.79501 50 34.628963
461.34247 0 11.076362
519.4549 50 36.792679
64.905724 50 42.861069
368.80649 23.410229 0
53.382374 42.915447 50
659.10144 17.58264 0
66.229256 50 41.576618
119.21061 50 27.310101
496.8194 50 30.271133
404.91602 50 9.4266777
943.13965 0 33.747723
672.02356 0 29.801561
533.85181 50 9.7504587
228.91452 21.512764 50
878.71045 29.257397 50
797.91675 0 11.616837
615.1535 19.574543 0
448.79276 18.033127 0
325.24512 6.7922144 0
723.75592 38.687393 0
347.84155 50 11.838516
768.85101 17.903032 50
408.21161 0 8.1832285
257.30692 6.5481558 50
897.2196 30.814968 0
681.22113 25.364918 50
779.75568 0 22.446133
408.56046 23.30999 0
247.43132 50 20.623806
0 16.932951 33.814953
358.25262 50 35.827572
263.1524 0 8.2261648
749.03168 39.096268 0
32.477341 50 49.998524
355.00775 41.777958 0
897.90552 50 37.999542
887.98389 41.736599 50
614.47131 50 10.849709
25.649071 0 1.5625
423.35239 0 41.668903
116.81042 0 40.16415
599.03406 50 24.996685
444.6499 50 24.473022
987.91229 0 40.061909
168.61005 0 47.703453
221.4581 0 17.383909
97.239571 47.429981 50
265.87238 0 33.242165
192.80708 0 47.064232
361.18613 50 19.705778
363.55804 5.0450177 0
994.3537 11.896577 0
483.22232 0 33.868561
528.63519 3.8243918 0
24.869541 50 40.678047
2.1263275 50 11.716756
108.01754 50 7.365468
642.00818 50 19.668869
415.69162 50 47.700432
650.03583 0 49.167572
355.25949 50 4.7178178
925.44128 18.08247 0
900.84399 0 48.498104
750.73816 0 26.468328
56.521366 0 24.273815
838.66736 0 30.086855
646.20197 7.9148026 0
477.07739 9.815774 50
262.13712 32.099064 50
1000 47.236027 21.650993
273.87466 5.3959966 0
13.712098 47.089912 0
207.90494 46.089058 0
79.807358 24.516396 0
181.91003 19.850899 50
370.94025 45.848209 0
393.45334 0 46.121052
61.136322 50 5.0221148
12.5813 0 18.371838
987.81323 0.0082934033 50
7.0684147 9.6911221 50
966.43018 0 33.242599
595.2077 50 49.494148
10.810498 0 25.41165
681.92651 50 47.563011
727.49573 6.110054 50
454.41766 14.287127 50
807.39136 50 3.50824
834.32288 25.877409 50
512.01263 42.841606 50
357.39178 38.525608 50
409.48334 50 23.31142
1000 1.2164265 7.7981067
628.12567 0 36.697968
898.33362 50 25.124649
86.42907 0.6776309 50
659.07269 33.642544 50
788.81702 0 20.67131
761.49207 50 39.264099
86.647568 11.686152 50
131.90053 17.020227 50
754.302 2.9344428 50.000004
385.00201 0 26.727142
676.44733 0 45.190266
849.22687 50 9.6930742
800.78479 20.695215 50
252.88649 50 19.001255
150.03157 30.646021 50
216.10901 17.458361 50
4.7594581 47.259975 50
858.5401 0 7.5219603
26.410902 0 29.002428
727.73358 0 47.694656
0 30.461237 24.990522
633.17236 0 28.531992
149.34853 50 18.047449
663.83002 28.801048 50
861.22217 50 21.555511
5.4478245 0 21.100983
26.473724 39.076172 50
408.97989 50 19.600189
591.35962 50 29.495525
253.36987 50 45.182907
738.10297 35.618889 0
320.37509 23.393017 0
797.81567 42.319687 0
354.61292 50 24.666531
384.2876 0 15.954092
635.29041 31.27075 50
635.59515 40.717854 50
883.21887 0 16.654974
288.32532 33.776077 50
715.4754 39.38829 50
634.35016 35.592289 0
553.55743 0 24.442881
529.89807 39.028149 0
341.00436 50 29.117085
709.62201 50 16.031811
193.995 31.961329 0
388.73596 1.3977045 50
1000 43.982033 36.217102
333.25839 0 48.038937
12.688778 50 29.855335
103.0155 50 11.900544
941.42755 50 27.787115
72.767677 50 42.28083
1000 48.895145 0.68881434
880.25012 0 23.383503
605.22083 0 17.513027
952.3396 0 7.4913774
734.2218 9.2110071 0
530.81116 14.874146 0
767.59381 50 21.910824
457.41388 50 7.5106649
261.63562 33.647079 50
408.66281 0 24.375751
349.28619 50 31.436062
335.56174 0 44.003868
457.59067 22.094227 0
610.2262 11.048987 0
225.72928 22.849058 50
841.08966 8.7259789 50
184.44173 50 46.420898
487.71753 0 13.306517
228.43715 21.691141 0
893.50891 49.896896 50
837.75354 0 27.180378
195.31892 9.1641808 50
250.86223 46.62122 50
0 18.670486 0.78230524
810.91718 20.22987 0
673.28503 50 18.809351
0 20.621893 7.7395029
422.9772 29.751678 50
368.19867 27.812666 50
920.79877 17.954691 0
231.27573 50 34.399433
364.3902 46.330662 50
502.84753 9.9890528 0
250.17181 50 13.598445
778.02948 0 3.7709024
542.22803 45.490627 50
406.48157 16.535198 50
236.36606 0 45.764847
608.4176 0 23.033035
539.35016 0 3.3787863
556.22296 0 37.300087
0 3.039835 18.845081
584.58691 39.408623 50
226.93207 0 8.5565071
56.920612 0 42.779236
354.82495 0 41.009113
848.2052 12.592351 0
450.49228 0 46.098717
28.307312 13.986339 50.000004
357.65109 36.85149 50
406.51233 0 31.279284
632.43494 9.3891115 50
299.56674 45.566605 0
565.71088 22.425226 0
236.52972 50 10.708677
